# .PCD v0.7 - Point Cloud Data file format
VERSION 0.7
FIELDS x y z rgb
SIZE 4 4 4 4
TYPE F F F U
COUNT 1 1 1 1
WIDTH 712
HEIGHT 1
VIEWPOINT 0 0 0 1 0 0 0
POINTS 712
DATA ascii
0.5102363092772554 0.5955051706728058 0.35715839980023156 1370355
0.3916306258198158 0.6131523396894087 0.2708433818130618 8697523
0.368158919086582 0.42666130176105377 0.24526123106453163 6842472
-0.3064469760075938 0.3043714809226787 0.04488943005933155 6250335
0.33370524142702845 0.4317925864311487 0.22019585783162848 6250335
-0.023096410381012525 0.009711661189886884 -0.03990886209525482 6513507
-0.37922045536472426 0.16520285494287695 -0.3086203922835882 16119285
-0.48062860347757863 -0.652025362882424 -0.33673538181892393 15000804
0.4599714387320427 0.5197477843143823 0.32098110750752995 8026746
0.2598915179854607 0.309847791586098 0.1756925826906271 8026746
0.4619307961173843 0.6679902786581127 0.32383734523171454 4473924
0.4151945489638461 0.521742404022604 0.2779774984893745 5281380
0.10521298714298574 0.13197715830680942 0.07125558938825334 12500670
0.3937044053085264 0.5111055815687231 0.2710332358432306 3618615
0.23164330519164078 0.3920757289113437 0.1620710871939278 6842472
0.3705169911928348 0.4779140921202466 0.24008326549845121 9995214
-0.4719267738636121 -0.07497104022241674 -0.3663558646909161 6579300
0.4586401731723186 0.5761921692931918 0.3018878449528849 8753224
-0.5383739231915174 -0.11776168964109324 -0.40330853809274214 14606046
0.27608908319822545 0.44482974401939346 0.1835096482053683 3289650
-0.4805618941116331 -0.6292988209017649 -0.3329954519405711 3223857
-0.21665057446626448 0.5152626582185562 0.1953599628931384 3092271
0.46662342033646076 0.6721035741421196 0.32475231271952276 5921370
0.24549101937990123 0.31863026949659157 0.13595874627840804 2039583
0.2296472784769525 0.30037450894498985 0.12364469803136856 2039583
-0.29304895199099923 -0.22255923390254975 -0.19059835494946953 1118481
-0.26594141681215205 -0.11596087694908949 -0.1484957963705864 1266963
0.508295998599797 0.291684234148907 0.3321503341143075 12105912
-0.46011552337580963 -0.2565462609739113 -0.33270104591633587 13948116
0.49428811314779103 0.6229260768186409 0.32740397584421715 2829099
0.367594647470303 0.4620092476839941 0.24589768411746898 7690595
-0.10747541942039558 0.5471303006426507 0.20502717501253406 2039583
-0.10949716335141318 0.4588731440751431 0.14679790692542027 6447714
-0.22534976972075793 -0.207037388425787 -0.15325693882084573 3421236
-0.48399011318269647 -0.5728893713963044 -0.3357106475255876 3421236
0.3592619918498865 0.44927144296029015 0.22900456806202824 2631720
-0.421879833255254 -0.5136143820148336 -0.28025945075169356 7697781
-0.6369859914870227 -0.2737989036972124 -0.37013752368040254 4079166
0.6350366307972942 0.29946035183432407 0.29790889550256505 4079166
-0.39739772453537847 -0.5302523819593702 -0.2694687322771898 12171705
0.07512985917246907 0.12680510170365847 0.053198880277095684 12171705
-0.3208710321640568 -0.27302761152798155 -0.2220502944468521 2302755
-0.28275858700073375 0.38553752139142244 0.10086692138701647 7960953
-0.2865126542729328 0.1784991534092913 -0.006190651378638223 7960953
0.4387348149114817 0.5383799715295747 0.301140809259557 6254389
0.446125644709904 0.6312116674125903 0.30682676384355934 13158600
0.4153046213484576 0.6162512875713092 0.2840751678318344 13158600
0.4273245142395269 0.5694357423788907 0.27909868897950774 460551
0.42862259421113 0.5220395105929855 0.28282243245216043 5140657
-0.4252272937539823 -0.3359940027105035 -0.23021416509385756 5460819
0.728640055650398 0.19984523467944088 0.4528233752904009 394758
-0.14360696848108906 0.4735147586192259 0.15458781898434903 1579032
-0.7198419707183763 -0.17587814954434522 -0.4538839422396427 131586
-0.06374176292332948 0.5092035996077816 0.18288835753067983 9079434
-0.08409181323600107 0.5232878916323876 0.17049772625943038 11775897
-0.04061920177882544 -0.0377494974680048 -0.026371579907335865 6184530
0.5154501780236562 0.6275852006493634 0.34180842572880354 2043321
-0.4802264194450166 -0.5352260066829697 -0.33048783089887795 14606046
0.45711781495002013 0.5739312826934673 0.30962312440140316 14606046
-0.5954994101205306 -0.5588854426230201 -0.4130828684029214 13355979
0.3879928289805501 0.47665833773905786 0.24986521913392512 2894894
-0.11693074244421675 0.5376486907956574 0.19940102732492362 2894894
-0.5678867412142466 -0.5616623096073737 -0.3955591082036254 7303023
0.6809793850349971 0.21223879932070078 0.4371649377729036 197379
-0.48758830318747737 -0.5557645049727202 -0.3320079625803781 460551
0.43201555017723775 0.5298534079487163 0.2620655570683237 5789784
0.08622156142460911 0.0973555729874522 0.05849743681922311 13344549
-0.26295772436582593 -0.10066830892681963 -0.1138126821770418 7829367
0.6570436686241355 0.29712903369410937 0.3351047248816674 7566195
0.37003257855294186 0.4310492691493313 0.23749926355464623 3959604
-0.20052522999840056 -0.15509724319508172 -0.13171140141386836 592137
0.3898972258653786 0.5726318148217344 0.25428735224427357 1381653
-0.5326802587064289 -0.6421508519222228 -0.35141189852298776 4144959
-0.43120084054265195 -0.5033660307697152 -0.28374999222527275 2763306
0.40229726635684104 0.4017581901463969 0.26286342730065154 8750469
0.40229726635684104 0.4017581901463969 0.26286342730065154 8750469
0.39726233052701154 0.4429207968301076 0.25685718106937394 12829635
0.5347400033227667 0.6180294402758754 0.3592481413771041 1250067
-0.4011233956933674 0.06087246617358777 -0.30756855667783833 3881787
-0.6994028869215397 -0.2023197048657317 -0.43568451696707095 3881787
-0.415420526199289 -0.5555744955514322 -0.278377031532822 8620427
0.4406203804763004 0.6160216365852835 0.2968780709000547 197379
-0.06979275889984952 -0.06308818274850046 -0.048814439300292514 7960953
0.2746639152440002 0.26845951201510865 0.16593549694099982 7434609
-0.417493962764087 -0.47137578439787176 -0.2803929403011814 2105376
0.43041741429313524 0.4706836023012668 0.2865250314926342 15987699
-0.14314862126130568 0.46406869538515994 0.14728024903741027 5990999
-0.27987540696405006 0.38682518585307296 0.09919642586846922 5463384
0.37049878532150143 0.45051699609074825 0.23566604746726624 2953525
0.3975809800591059 0.45638890629570983 0.25384322757953287 7901039
-0.14526977080206713 0.48824923093081984 0.16350333813395856 5773899
0.6577844933031967 0.437605807721807 0.45061827390819437 8882055
0.25381606442313154 0.3765344689067862 0.17039613128469502 9276813
-0.4802024348707193 0.2522265990822318 -0.010480883652327938 6850435
0.37767823292009045 0.431310967807085 0.23842984246801918 6316128
0.625617250066507 0.294924672613342 0.24498594257023742 7368816
-0.47466832514844987 -0.5777136667885192 -0.304602028075014 8355711
-0.46494447063439814 -0.6274517710300166 -0.30697285443720956 8355711
0.2997882590696584 0.4397731450003318 0.2006322979255686 3618615
0.7378015831257008 -0.08955249856812031 0.5465395590279902 3289650
0.5223813057266629 0.5800225803580186 0.3418634251698808 6381921
-0.4035230233384209 0.14187983532232 -0.31033363888090415 16185078
-0.07764969101674539 -0.062211030513477844 -0.05814519832279544 13421772
0.4317673138783798 0.5918792919171534 0.280986550081448 15066597
-0.5451773858385742 -0.557320942908394 -0.36725283035137646 2368548
-0.13910731212604985 0.4574369461585585 0.141037650336808 2368548
-0.35195666038473045 -0.0018904487713962692 -0.1358953026467038 526344
0.42982256581642253 0.5946920179258119 0.2792994603913366 591109
0.43070466004606534 0.6387134867910618 0.2869599867469332 7697781
0.4257821689292826 0.387070492914747 0.27527347676104097 8682893
0.4257697656963545 0.38714091358157315 0.2751687976800454 8092539
0.4743269603184736 0.6054062141577774 0.3137171299374224 65793
-0.18168248610765028 0.34212478192987694 0.07422721226620932 131586
-0.18176626862880596 0.34196191565948447 0.0741104990711039 131586
-0.42055750522861424 0.17153650922035052 -0.033298567450321226 131586
0.6994835520869712 0.19265481028796633 0.3249084340087932 8158332
0.07829352593532231 0.12188660259479761 0.05253767055523362 7566195
0.6439694240999854 0.3081145591503464 0.40930045555281 328965
0.6439694240999854 0.3081145591503464 0.40930045555281 328965
0.06327080868859548 0.08703497392992071 0.03944763701408141 4736348
0.7699008082957615 0.014218923677624562 0.4438510607591732 14474460
-0.5323067214511726 -0.5746757301381504 -0.34670214700442514 657930
0.4604483565941518 0.6002221873281248 0.30097738985529665 986381
-0.5204341753641706 -0.2120672254101013 -0.35692543452211184 10855845
-0.5204341753641706 -0.2120672254101013 -0.35692543452211184 10855845
-0.5204405190229717 -0.21218948254354275 -0.3568878407019923 10855845
-0.5204405190229717 -0.21218948254354275 -0.3568878407019923 10855845
0.639095130864176 0.5340356604638167 0.3827314294539811 5921370
-0.46864921679084326 -0.5712373460896389 -0.2992546961628705 8224125
-0.43982719038198687 -0.0004914184138371525 -0.3240666144982796 657930
0.20586831523621407 0.2821184961073536 0.09480507161878318 394758
0.07335858204686957 0.14833592435297616 0.045477507725295706 6447714
-0.5542967591231667 -0.5409725086821756 -0.36448499131586426 3223857
-0.19587128697264228 0.47383747052285385 0.14732633062654144 723723
0.5185418582983106 0.2464432504497916 0.33626995137312216 15658734
0.5910057171467326 0.52389679741496 0.33138284261148104 3421238
-0.49260460637415443 -0.45992942768263445 -0.3211383902307173 197379
0.5481643436107221 0.49059994547440566 0.342190847619961 13158600
-0.15974387886514657 0.28767067760270154 -0.09828311012860715 3750201
-0.5110147939279189 -0.5177033472398822 -0.33401759956906646 10395294
0.46764055222721373 0.6308325550130798 0.30282058445193466 8750469
0.45833837691511103 0.35983313739174727 0.2931035056751315 1710618
-0.07476168024406517 -0.03975780780906232 -0.07014963741100297 9325559
0.7060815857104139 0.4762608000295197 0.48922208108914245 8816262
-0.40874444127590326 0.12035730010335127 -0.30192596477897604 5281694
0.2865886418082246 0.355661860021621 0.17272367019668322 197379
0.14590073658638814 0.15798874874746105 0.026551663164934007 13553358
0.6551436507216839 0.4866144640979811 0.4094482011706302 197379
-0.07919291923488887 0.6224731957445246 0.21510019504477754 5658198
0.569034289251142 0.5812391858419819 0.36368472424090614 3421236
0.5697634123382055 0.3727208326031239 0.36912316861136 460551
-0.5414369454389406 -0.21778048436451947 -0.3633311210271171 10789536
-0.5414116591949966 -0.21818138252051766 -0.3633755186780781 10592673
0.6914449542987403 0.08210032186041749 0.41923174412080383 11316396
0.5314928857563064 -0.07385450717009617 0.19905336035304105 9539985
0.5711775130219992 0.3701929233465774 0.37136811660033425 592137
0.43864062906108775 0.41473007177544796 0.2727657802368926 592137
0.6768458386520388 -0.09067415755204022 0.41378986978643373 3750201
0.43642789310885804 0.532900061680532 0.25593741505514456 7829367
-0.417191677702658 0.12670853680836763 -0.30681424333453505 7368816
-0.7385845131374076 -0.12978552674477029 -0.42671214724196926 7368816
-0.40550122270525807 0.10295959722667669 -0.06281208515301612 12040119
0.014475288050187782 0.17990816588361894 0.03121750593182318 3684408
-0.4942076306846751 -0.5054727908066678 -0.3188753282770109 14737632
0.6992749993545075 -0.014756336769426892 0.4495805113713296 5329233
0.24312824205646877 0.1369668517845285 0.08195234167666995 5329233
0.6118176236108364 0.2817895037707938 0.38646941728198425 789516
0.46861652110871077 0.598709808116688 0.2982006179046534 6250333
-0.491998998098693 -0.29596158344335316 -0.3273963203601479 12895428
0.45440945368737323 0.45237306656838266 0.28958771557256835 8684676
0.32779920845051147 0.3731677649968997 0.19874371102961577 4079166
0.5201333410363952 0.56333167487493 0.31342849602685774 3684408
-0.2005517942476431 0.5097733462167117 0.16564097128142552 9820882
0.18931650003211034 0.25365708560114897 0.09434533474986383 263172
-0.5470154964573584 -0.6167349834297629 -0.33644143723071107 3947580
-0.30249014628317444 0.4630927218599318 0.13782972488593476 5066061
0.3936647570979425 0.4841844055845348 0.2208095601928182 328965
0.43788892691203 0.4567925355718256 0.2675909103083642 3618615
-0.4348401895903016 -0.2535738529951703 -0.2547796426859341 3289650
0.538704791250862 0.5726359406314463 0.3360717947169911 3289650
0.6371986668666075 0.34892276944897754 0.3046532836604471 5723991
0.5608493395995178 0.39930808022064873 0.29267983462307684 7831935
-0.38410894094467396 -0.06853197013507834 -0.11890700033913493 9814202
0.21477252003860647 0.329899240062833 0.1262968422061952 8553847
-0.5001850939519874 -0.255395892092363 -0.3270259531774146 12500670
-0.6298313193456618 -0.033404677493207524 -0.41383023561754406 15724527
0.22014696201467415 0.15180564793534254 0.06182535567985778 15461355
0.7697097845748055 0.2193767856432718 0.5332636148665006 15461355
-0.7480657793549597 -0.11122312082781383 -0.42212259708259314 16119285
-0.5006277558775685 0.08528947830766254 -0.36107910020278 16119285
-0.47449507785606765 -0.3083480519568199 -0.3033285348078749 2763306
0.2269185231582623 0.18771566468633957 0.10610521389286154 2763306
0.3319385095092594 0.3477502974255007 0.1895511939283701 2763306
-0.0877564474874156 0.2077872301057609 -0.0639401190344277 5789784
0.6797831418591714 0.2016278951836995 0.4147961378150608 14671839
0.7692115419437936 0.15145359349979615 0.5237550933836872 5855577
0.4082635873087324 0.5123090806013945 0.2585815686958012 9386867
0.266252318166559 0.3747081669407233 0.14922876647809885 986895
0.26633503822556487 0.3744192361594665 0.1491209771434229 986895
0.7708790116318742 0.23498525340358 0.5274169689929098 2302755
-0.20469657713013187 0.5117020848464424 0.16324896520070376 3877414
-0.3684405041571583 -0.4992014300313723 -0.23218667468246598 10000536
0.652836884605215 0.24333187381114119 0.4371669367815491 3355443
0.17550841955027818 0.19557405277366158 0.10836831903241753 1052688
0.2327417933063834 0.2295337170615865 0.14350890740034042 3092271
-0.3008511933776553 -0.14004339176090894 -0.18058805535764272 3092271
-0.25682182256287106 -0.21979651903409977 -0.149545783668932 10518945
0.2641259012898447 0.21997275996525037 0.16355524206956149 1052688
0.49781793951043474 0.46124259412576335 0.2675053126541322 1052688
0.43575826933367773 0.4594779401692365 0.26433899436393943 460553
0.5277968408983117 0.5691322002585498 0.3136354697059014 460551
0.01802894152990946 0.2132194153557148 0.05093984414341515 2763306
-0.3215935393303683 0.3395676960714833 0.06487332688178378 7173243
0.49898517387444075 0.6276538396582583 0.3146915944399839 7173243
-0.6721369193296425 -0.2814312101518114 -0.32439766165567996 4402582
-0.5023894239779361 -0.24470080322275795 -0.32751309816683893 1644825
-0.5691458755094687 -0.5689012934685468 -0.36027742988905365 460551
0.23830127931067505 0.34457551528692454 0.144118890877096 9320831
0.34021411003054264 0.4476044288427464 0.2137836263924261 13092807
-0.4612900311553601 -0.5590209329034662 -0.28984684595520954 6382664
-0.43030770615695146 -0.44403777822747953 -0.2707905192759505 592137
-0.43030770615695146 -0.44403777822747953 -0.2707905192759505 592137
0.43819928355572574 0.46020944527667107 0.26458115019564266 14637982
0.5737240591521061 0.3408565748480732 0.2732868616555999 789516
0.44495491139559873 0.46883469130916666 0.26930372288845084 394758
-0.6786765138488048 -0.3177960506084274 -0.40384731027928394 526344
0.5533301150138737 0.2911819712454632 0.3007412088543844 394758
0.45464889221067234 0.502500008567369 0.2771007396693027 9934743
0.4299661314684867 0.48422656108473605 0.25852458384284766 9934743
0.7484778182342681 0.3447002768263451 0.5045376519803262 3355443
0.21823019839470695 0.31099932350869863 0.1310151037842014 11711154
0.27570241201456136 0.3045284842467847 0.15446754209197294 2279345
0.675426497386476 0.449017271010659 0.4214634663368032 2279345
0.4748937367825186 0.35258140410039945 0.2935248307481527 1250067
0.4914258885196191 0.5042964812894895 0.30289527789699155 460551
0.44150723228630756 0.46319617886343833 0.26486469129396417 131586
0.4907757876620435 0.5103152746814805 0.3042855551732507 8947848
0.5415311687407068 0.5718025857778538 0.3341231872930628 8947848
-0.4109502286764021 0.2474973940536925 -0.07485399540139406 2631720
-0.4230044684228548 -0.031194704092359637 -0.23369434546790008 2631720
0.7161779640626993 0.1281302201289896 0.4182823170661424 2105376
0.2661999995539989 0.35434144080491603 0.16391329144069314 3750201
-0.43963666323355066 0.13467859885313604 -0.3139302888808279 10658466
0.719716383013462 0.11022639052643463 0.41845014627215593 7237230
-0.4321579811384079 0.1191667311636948 -0.3078050124705428 7237230
0.4850267249801748 0.4614642835255015 0.3008289612019802 3223857
0.4996932133782001 0.2032835295352058 0.13396436981570847 657930
-0.1214517177909235 0.4749735863702764 0.1398251545128319 7479376
-0.4022924077697987 0.16630412572103204 -0.28484956631694797 10724259
0.6832968161560398 0.13311575367716671 0.4101933418970812 131586
-0.3847839600082023 0.05125646340591394 -0.2700104865198775 2763306
0.47015637772668717 0.39061634168578924 0.28518784465890595 1250067
-0.25951285073372593 0.16917348430930068 -0.006640015953282452 197379
-0.11357058465408626 0.30756977778180883 0.05898514485595563 15527148
-0.5582272041061255 -0.5498008372923104 -0.3372503328968658 7884058
0.6572733530313156 0.49574868873400546 0.3745848184542213 4210752
0.3634024478248838 0.44917750925245004 0.22314002920039427 3618615
-0.5629419096439908 -0.5953918131628926 -0.3340403814105066 394758
0.4457263585611466 0.5634584256033579 0.26775675202389837 855309
0.48241813028548663 0.466349203963746 0.29860997248507093 131586
0.4976144971072404 0.28035099692607107 0.2958508819538081 1973790
0.0483117266304871 0.08563182050520739 0.01241378185684917 1973790
0.426501542526432 0.5583977058576834 0.2596281152938045 3815994
-0.7519409334673747 -0.14054272900017273 -0.4219486742961336 3947580
0.499700591672152 0.50361518998358 0.3055349732256943 986895
0.4477193771896166 0.4614172417489021 0.266205467430703 526344
0.4477193771896166 0.4614172417489021 0.266205467430703 526344
0.568356877368758 0.4959711974787015 0.31115691356723946 3289650
0.2335594514198768 0.2714622544775219 0.11187945032609552 8026746
-0.17059517618784426 0.2809644410289947 0.03889576687186902 592137
0.4073330699793646 0.4904045821573466 0.2459427204279254 592137
0.5005967974890766 0.47388290755650503 0.29824356228057464 12632256
0.5297283303517482 0.473912578758784 0.3257549075665957 12632256
0.42825538493214743 0.4716850174827897 0.2520904362882309 9803157
0.42825538493214743 0.4716850174827897 0.2520904362882309 9803157
-0.1744194015557488 0.5693968325846837 0.18948049341253656 1513239
0.4609544819531225 0.42873849213901405 0.27486232553691986 8946548
0.5485442922289749 0.47120806650192504 0.2962437175730019 6891751
-0.02430055076125312 0.15418332380875371 -0.010867092535557454 2894892
0.26089516224648934 0.21152573518702925 0.1179121059240668 2894892
0.3218268470428235 0.36965430744294786 0.18515469425043632 328965
0.4886904150429015 0.3500993858335354 0.2981908640768267 10395294
0.495597201464342 0.5884320582414351 0.30359291655280085 7237230
0.495597201464342 0.5884320582414351 0.30359291655280085 7237230
0.35247407408813436 0.2633787056139089 0.1077628602711148 3552822
0.46197023903272144 0.43016388687771034 0.2746581986454545 9484449
0.46197023903272144 0.43016388687771034 0.2746581986454545 9484449
0.4454143248891972 -0.12507299527324967 0.2932877088550254 3092271
-0.5264388615955723 -0.5959371888800775 -0.32397949926469377 15263976
-0.5264388615955723 -0.5959371888800775 -0.32397949926469377 15263976
-0.560342708182683 -0.5919710205484078 -0.33236613305983376 526344
0.11247166601033608 0.3031413719989964 0.09892954328343499 526344
0.6281800963898883 0.4251348290241233 0.38349360110680825 3636242
0.29482466796994733 0.3335210108218634 0.14706257810080942 3636242
0.6472391408359726 -0.09044300216970325 0.43855295147605144 2368548
0.47110891418181655 0.40514377064294277 0.28134473439351376 7349194
0.4515653808411103 0.4624441799732488 0.266738272613997 4492573
0.7875197641707149 0.027185760218477406 0.3943147583592826 2763306
-0.03437809630471128 0.1407024595097824 -0.02731949326146238 2763306
-0.5599074176787139 -0.5075489425084077 -0.3476548904115606 855309
0.4532286117379403 0.46166902175652935 0.2676244081986419 6370890
-0.5116069937743948 -0.30859378786563796 -0.31552738262845176 13421772
0.46426194236521423 0.4285418937540065 0.2753404182361984 13553870
0.6679139146107773 0.4969398954177854 0.3750256190237702 4210752
-0.5318912402583238 -0.2208563260387591 -0.3379779927953154 1776411
0.4642447066679354 0.42872862005371176 0.2752356135879671 13553870
0.584583428441887 0.3135786818364699 0.2517074228735422 9803157
0.44492529176403406 0.4803451931266651 0.2618802409732553 855309
-0.6933815177892289 -0.2844331362005143 -0.43300488940423215 2236962
0.4792875187338548 0.4229489847809875 0.27978623187171114 7417290
0.4722671091420583 0.4065380561640213 0.2811036521912869 7417290
0.7061862561219663 0.40698248751724553 0.45518675898052813 12698049
-0.5968848249725744 -0.4871989275948241 -0.37070333341755624 12698049
0.4407417305157346 0.56038204327478 0.2637005605135584 4408131
0.38098566549867974 0.37264446262435746 0.2015895082524087 9152957
0.0269801661906615 0.02788903308990951 0.007465766812958046 11382189
0.2542775985459335 0.29253852735923286 0.12601792277455687 7684451
0.4732706623843123 0.4045289970344794 0.28154272036784034 3951774
-0.11150350667182317 -0.11446454874837628 -0.06780562543665151 8158332
0.4781159306403029 0.41339756402833927 0.2841206975902889 526344
0.5392184377705659 0.45316292476636655 0.3259106682947269 526344
0.6332526810744205 0.2968636552037788 0.3804052790139761 9605778
-0.5389806310838665 -0.20938510297346097 -0.3417241363994819 9605778
-0.2604813575955306 0.42538247109789784 0.10517719424761207 2828834
0.46965690068772503 0.4232189231623151 0.27773616789591177 789516
0.46965690068772503 0.4232189231623151 0.27773616789591177 789516
0.4837516098834336 0.36702064253619976 0.29043163647028125 13092807
0.5944008228386222 0.5003555228227313 0.31968393771837295 5329233
0.4819415334236701 0.421458881397436 0.28051698321082047 9669025
0.4536256515632052 0.4657054044660661 0.2663227485333747 598023
0.4536256515632052 0.4657054044660661 0.2663227485333747 598023
0.7588276922728936 0.3643734006127636 0.4521169448844612 7290310
-0.11824096472644485 0.479284945724597 0.13855553851017138 526344
0.4471171334063677 0.4533451549345422 0.2614678905525959 394758
-0.47279297615615934 -0.20408342379367123 -0.2995273160430959 10395294
0.3337718316179274 0.17399055405064054 0.17515024774591598 9276813
0.3337718316179274 0.17399055405064054 0.17515024774591598 9276813
0.4892274169858295 0.41745337640577346 0.29091207009217734 4305297
0.45122259206920584 0.5993142624376071 0.2736328459463363 657930
-0.42056958136617634 -0.4853102508938796 -0.24985997756801714 1250067
0.6193502792958401 0.2587936216469937 0.37274371517838856 8947848
0.7040154633083741 0.18759106281718252 0.4082140250378955 1250067
-0.6389033068942195 -0.05738792271355109 -0.40002241835886393 4605510
-0.46527357226658095 -0.514727572884683 -0.26143416035410866 1250067
0.4724508939167702 0.41743327226850135 0.27902470027406423 806781
0.4724508939167702 0.41743327226850135 0.27902470027406423 806781
-0.6275874990706315 -0.5144608989307794 -0.3874768797408088 2568482
0.46789491426658525 0.4310877672160951 0.27547330301909356 13948116
0.4595424829454438 0.4545572803203391 0.26952799405899086 9934743
-0.47312831705925085 -0.4983463539265123 -0.2725271055865357 10921638
-0.5236309745327802 -0.3541464878842285 -0.3269278327668472 2497315
-0.2626643769265771 0.43321135361371677 0.1089659946200453 949257
0.47585821859211686 0.4116923561202787 0.28073984009714226 11315368
0.4706016515846337 0.42705559762288103 0.27659704707741073 12961737
-0.60365612884492 -0.4726425952691476 -0.3722009680346024 9076062
-0.4777273214625165 -0.5293754308016738 -0.2901278190141091 5329233
0.5508928725587708 0.5244570355067011 0.33031271771212284 394758
-0.5399610542295906 -0.4824069364399959 -0.3184306278634942 13420236
-0.5365577849187187 -0.5981534671503378 -0.32555779731774914 7697781
-0.5327501139458124 -0.600120829956639 -0.32323264445434763 7697781
-0.6352819077141727 -0.508279208507556 -0.39067469594277265 394758
-0.10800021937776887 0.22785773801432666 0.01259690912796424 855309
-0.3310315091138234 -0.2506575272750978 -0.20445970961489862 3487029
0.45592298204536197 0.5942132728242739 0.2745680344330024 8553090
0.47143783245907306 0.42901066193741666 0.2764300073896616 14981922
-0.22091760925437542 0.49033310761821886 0.1437412707818434 2368548
0.5441264219169917 0.49290351597448534 0.29944788638988235 2368548
0.5059912241429126 0.4785296670068644 0.3086115599284678 14869218
0.47932661293811163 0.40954783649983817 0.2820762368662693 1921089
0.4939701496572513 0.5659661494584391 0.2768545764785928 4802889
0.7154940387409084 0.3523702887928679 0.4550014062941528 4144959
-0.720354735443127 -0.36031530623234365 -0.4570815672309023 4144959
0.3828055335317589 0.48144654435260364 0.23143963181163363 4013373
-0.5472773914697502 -0.1981995533138302 -0.34411900443858395 8487297
0.5473935049415376 0.4579190288253722 0.32969573843426736 10859716
0.46847602177107434 0.429127975560155 0.26516801962516734 10859716
0.03353893125209935 0.11033249409871038 0.021478223064831374 7303023
-0.6363780310608124 -0.4412481302306428 -0.3123586222418041 986895
0.21841306492798881 0.24063552678936453 0.12101844229566253 4144959
0.21841306492798881 0.24063552678936453 0.12101844229566253 4144959
0.4460287825845422 0.5592094691070968 0.26376290256438883 14211288
0.4748881618998721 0.42574312008542936 0.27782109760585094 6818407
0.49304181441341616 0.6181407793161794 0.2952658521916164 3421236
-0.1598736262754404 0.26611547390773127 -0.008609733938490273 5921370
0.3365457126444965 0.16942458862336204 0.18747068707544284 9276813
-0.6004807342697228 -0.4504532540236191 -0.36790304911146154 8698786
-0.18871525043730872 0.22922931806003716 0.0014796830453687182 4276545
-0.6330100733887454 -0.49596795780556413 -0.3873382109095562 4276545
0.0018123096931227992 0.1259999273695543 -0.0052613343456781175 3684408
0.4708526361998911 0.5597780670486097 0.2819105416567226 6974058
0.47847836810846517 0.417305538519618 0.2801102779373154 986395
-0.17977876826755715 0.4520196817074344 0.1251279271557431 6645093
0.48008347176776617 0.4071613040947505 0.2810608938957983 789516
0.48109785548521466 0.41404007093375084 0.2786812796956289 789516
0.46558919773169843 0.45470804882540145 0.2705718690071451 11452762
0.47843865222198795 0.4218378792192526 0.27937850351892823 263686
-0.5327185918225954 -0.5763703080719194 -0.3114367658447109 1907997
0.4854194643605419 0.39901419929100007 0.2845148698560501 2565927
0.4854194643605419 0.39901419929100007 0.2845148698560501 2565927
0.4762754726357657 0.42783563661831747 0.2774797476306228 6898270
0.5780757369204099 -0.1346301932983236 0.26513959892775124 855309
-0.10775884460747284 -0.045251904383541805 -0.09607160549781235 10724259
-0.6055067751039868 -0.4678540676645591 -0.3680649318694483 10724259
0.655387563519819 -0.14356304881924975 0.40469151173306356 6842472
0.013839877623248115 0.17220576205116006 0.02565152575825011 2771553
0.13187661603618994 0.2370538021282294 0.05997100326645036 328965
-0.5696392143014819 0.14319170217437294 -0.24558870388481863 1579032
0.5982789319745011 -0.17496443923517896 0.23229622978034015 1579032
0.5492246746791458 0.3424589309102513 0.3121296560233234 4547191
0.5848004392070639 0.3456138186771962 0.330191314495233 7347140
0.5261645016003864 0.15976071702312805 0.16672737069826488 9605778
-0.5715258112811331 -0.4658913272384863 -0.348842783454615 8158332
0.2583701561069338 0.2469470728966599 0.15134568970733023 7499299
0.46796412165371065 0.45405955688260313 0.2711327805008911 7499299
-0.6217923456389693 0.21048840779910732 -0.4098872629976759 8684676
0.47706051875180105 0.42895762478496025 0.27727298989036697 5716040
0.6721907680868304 0.12050917031552161 0.39493864058679573 3223857
0.6825760032797321 0.20570289887325394 0.3988513620712649 5000268
0.4819870353193961 0.4065631551114863 0.2780034124494906 986895
0.5837114193027801 0.5143407754350207 0.33208868606909064 12566463
0.40145103218332945 0.41680439058253244 0.2190580754660505 11251549
0.4673742945984412 0.45820810439554743 0.27037253945708906 11251549
0.5114938307296627 0.4793868699116167 0.30025543115410325 4532775
0.4951206367238452 0.4600371370126106 0.2780784778551172 9268345
0.47901963984921947 0.42763233470136225 0.27793899110741777 9268345
0.5167925133515354 0.32052700168442555 0.2607151904722631 2565927
-0.6581397432708072 -0.007292871047314353 -0.31855970199523437 7019627
0.7854171099008438 0.29801156477061186 0.5087500941163425 7019627
0.48128941823819493 0.42302691352713073 0.2791078635763222 13421772
0.47972753607964097 0.42743379569357476 0.2779784599621908 13289160
0.452870754804613 0.5508668913447866 0.2647464889754073 5592405
0.4892855490080854 0.5618885303182962 0.29132695785810436 5329233
0.3955423030922542 0.49801876674292445 0.2363164208335896 2565927
-0.5400654746286254 -0.47514732531416093 -0.3248418776251164 10000330
-0.1863103358471855 -0.21749572206381088 -0.11119547724944676 6250335
-0.5946918378599712 -0.47220126507205784 -0.3569172200828991 7430745
-0.5896968235565573 -0.46300849715156656 -0.35519301697788286 7430745
0.5959851579328044 0.061947913957630996 0.33558925284012114 2368548
0.6956795707491527 0.18510161655610452 0.4008882581325394 2565927
0.601818827164509 -0.17313123994309587 0.24545799609587093 7631988
0.4899552428364294 0.4025947321613081 0.28447617795474694 13547402
0.4808173185292014 0.4299516446149451 0.277606391218286 1051664
0.21200379155180005 0.3043609034749315 0.12185070694265564 6842472
0.2594976099707753 0.17860512223410663 0.15398384035046453 1644825
0.2594976099707753 0.17860512223410663 0.15398384035046453 1644825
0.04409624040592041 0.051003774105993244 0.000752920947273774 9342606
0.44648872700786457 0.5605449262355613 0.26561119092950963 460551
0.48812626691307215 0.41328418136919887 0.282111997359482 11611705
0.48333409762895047 0.4099502153063488 0.2735108318537912 668687
-0.611188722935287 0.3615149206995697 -0.419901533560718 9211020
-0.38170626970759397 -0.45189087771114134 -0.22664028803452607 7181686
0.492670865945557 0.5577772747257024 0.2885554017804297 4144959
-0.585471524422176 -0.0698149680432878 -0.3705735482033497 592137
0.6695780450246883 -0.13766953649716673 0.40369406424319154 7237230
0.68377959743438 0.10357806958047755 0.40014138290649126 1776411
-0.640009525465101 -0.0868097199532093 -0.3899857970140271 65793
-0.42455440301444874 0.1344217644691218 -0.28568562845594564 7237230
0.7414958046770208 0.11604671372322167 0.40676026885555383 7237230
-0.44830873791037706 -0.5401645944463196 -0.26437032530971893 8412543
0.5867528502234529 0.5138510127806014 0.3315097773518929 14820143
0.48857938732997774 0.41278848757447595 0.2808938416924743 11809338
-0.6084030752887241 -0.45435200738104053 -0.36358682470577774 10000536
0.4946608670386047 0.4058968489622398 0.2814124637673915 10000536
0.03829919254543631 0.05027796923956094 0.022730759672847888 8558422
-0.4085468294659402 -0.48705818323511 -0.24211668826573257 8558422
0.4790278440751025 0.3923012591907815 0.2758243890431958 9672083
0.5597334676640554 0.3099623827648287 0.1978990034597273 7895160
-0.6335972157965 -0.39629470305373715 -0.3408524683216694 526344
-0.44099788968961073 -0.41959724638283624 -0.2621411781398964 526344
-0.25469027719399495 0.4810478174761509 0.13859048557836146 3586365
-0.5456421651009155 -0.5168348016680165 -0.317851338385652 3487029
0.19051273461093365 0.15624178223167623 0.048538592807777926 1842204
-0.5814837115067364 -0.4635104812596374 -0.34566174356161333 1052688
-0.5878737960234592 -0.4620164276339518 -0.35098019871286057 1052688
0.48813514467243174 0.42173949042315007 0.2803264732895577 13684944
-0.45420386179522637 -0.4188459481698423 -0.26873413887585057 15658734
0.4330709970888282 0.42054178634012807 0.24231526469497094 4276545
-0.5482690325036632 -0.23869055500050496 -0.33207806724276334 9539985
-0.5752165823441273 -0.10041312003837943 -0.3489233165287478 2171169
0.511789114918419 0.4717828465589481 0.3017760268062761 394758
0.4106357203689154 0.28687040558388804 0.17322426609318145 12040119
-0.6016537657443666 -0.46230623647081026 -0.3598638659944598 11118724
-0.6016537657443666 -0.46230623647081026 -0.3598638659944598 11118724
0.7656065700568137 0.2062872262295813 0.44422756129301144 4802889
0.24495427553267 0.17521897348921112 0.12745441732466883 4802889
0.5404271535533706 0.0741208767167833 0.12869882841632027 6052956
0.5404271535533706 0.0741208767167833 0.12869882841632027 6052956
0.4421453068353077 0.45643412181391 0.24752372932423716 263172
-0.6689265046241769 -0.4566228894103051 -0.4066295179817139 11382189
0.5119725474035229 0.4279291015652371 0.3001035560447491 11382189
0.2221625285229942 0.3057023465412887 0.12816186643409447 11513705
-0.5497272086241338 -0.27591482711218984 -0.33772758249419493 13224393
0.5958251594318736 0.5051466167642409 0.33421685524246714 921102
-0.5494593937668658 -0.22360820174545526 -0.3330200376790907 986895
0.7793641276320975 0.22860381746887465 0.4918295183591277 2894892
0.6839012485851336 0.1828968907393223 0.39346481668731687 14474460
0.6839012485851336 0.1828968907393223 0.39346481668731687 14474460
0.48160685396876673 0.48148630713650376 0.2755390344843337 11350078
0.6406040663017474 0.2676585408604572 0.36762477248936476 2105376
0.4945814129116301 0.41195993213220033 0.2831618641316935 13487053
0.6105332683628916 0.37824361964898723 0.3217556784466843 4539717
0.07912651583247213 0.012595776497702202 0.025810043242156633 9277327
0.4976547020546453 0.40370640804587493 0.2852786266472182 10658466
0.7236307017060064 0.21871010190571716 0.40554180633744263 6381921
0.560507632710103 0.27153387960592706 0.25512612058964845 6118749
-0.801357461518336 -0.023945796047975643 -0.4885855407065554 15987699
-0.5023813771907395 0.3072796803901188 -0.34935603176468044 9342606
0.47289416797161576 0.4009853345555812 0.2643128254148611 9670567
0.6771152896569016 0.05714867334425633 0.39784069310112397 15856113
-0.37891520579191457 0.3245464474465505 0.004990048895195592 8617857
0.6272347011833209 0.360561054023274 0.34680815747628807 1579032
0.49578429623566794 0.4136133904811223 0.28291353062147884 9590341
0.49578429623566794 0.4136133904811223 0.28291353062147884 9590341
0.28119513599821866 0.15387110728194514 0.15569692182592942 1710618
0.06374803016638411 0.04179778474899225 0.025818607941362138 1710618
0.6149347298827154 0.4196885066627004 0.3059168033814796 12763842
0.5038759099882142 0.41719675824397234 0.29014846068556344 986895
0.039024009282654815 0.09221323067944781 0.018287465551002302 986895
0.231143817969802 0.315463092867191 0.12534247151282027 6184542
-0.36494967737937617 0.3326918356527985 0.012370727011120543 7370395
-0.37629931406024664 0.32388590683956675 0.005016962555680109 7370395
-0.5398756752350278 -0.2618723164108523 -0.32152518044964423 10855845
-0.6759314320999679 -0.3465772021192295 -0.2845734193139145 8750469
0.49344732164086086 0.4240522406857728 0.2805350927572487 986895
-0.5850148046052223 -0.23094240680896538 -0.34798811839305044 9013641
-0.6699564007298221 -0.4177158375851661 -0.30238714402343897 131586
-0.5566011395837073 -0.22276420248878143 -0.3347573007669028 8750469
-0.17218851751779396 0.2558449726884047 0.02256901073357498 15066597
0.4891249496468256 0.3866152197499534 0.2784143020115574 921102
0.501233706304771 0.4057383786111453 0.2856749119200526 394758
0.4829068918050178 0.22725879776131475 0.25298273642449504 5709918
-0.10572132443063002 0.316049191770774 -0.11174564683800356 10794651
0.5031256660497028 0.3989901050223351 0.28694376577801656 12874442
0.6880589526017038 0.0029497795110896563 0.29723327813617517 6710886
0.06548407441850743 0.11197831630953883 0.037077672079799 8684676
0.0243760872142872 0.18115904070108438 0.036919796106021224 4473924
0.5920931692708947 0.30566247718820927 0.2597574689987731 7303023
0.4928535035135937 0.4110565673624251 0.2795089260477929 7954608
0.49840211854257505 0.41470296284703617 0.28308932095012285 7954608
-0.6262664771656989 -0.49569340009454754 -0.37223523855853075 394758
-0.6136051428162218 -0.44692167474200084 -0.36080900608121647 8026742
-0.1823403304946193 0.25907959881970477 0.02191023088162014 526344
0.4176925773416647 0.4651413203968826 0.2363820590926873 526344
-0.2402391205773486 -0.1913579611778267 -0.13081267527176169 7237230
-0.18250820761103764 0.2588041596103169 0.021698872560732663 1445902
0.41779224413348054 0.4649207472182576 0.2363479494376781 1445902
-0.5039375984297708 0.30616173156053916 -0.3470944280793946 10392699
0.5423821322201401 0.43822639977253014 0.31532583556201027 12045510
-0.5578939154777549 -0.20748492697480847 -0.3314198307723697 7705001
0.5011287453976402 0.4106410333942263 0.2842855909317778 5717169
0.7781820827506216 0.29392840903063855 0.48159936053601216 2763306
-0.1051596902898359 -0.04381388120691511 -0.09077751443965408 3815994
0.28729464826908674 0.2992073653979904 0.1374838890804787 3815994
0.4983781810198955 0.42088417526451555 0.28207111249121214 986895
0.5058645631107478 0.3987012196638464 0.2874461289424407 12621215
-0.19789361209543735 -0.2041234051477131 -0.11537367893529359 8906029
-0.4386657638904135 -0.41256985292800263 -0.2552425903620502 3214490
0.5073773020865073 0.2647865192623487 0.2438932246572837 8684676
0.5659614238147449 0.29810245547800424 0.26715251738305396 8684676
0.49979748187386686 0.4183797564494602 0.2825273127981288 13619151
0.49979748187386686 0.4183797564494602 0.2825273127981288 13619151
0.35948200842010775 0.3775283948972643 0.196882791752052 460551
0.5020286929354936 0.4124660896383568 0.2839691701941947 4672673
0.5020286929354936 0.4124660896383568 0.2839691701941947 4672673
0.503845547242225 0.4118123210260972 0.28509028545551895 11979706
-0.04739104361198663 0.0005825559675590314 -0.03646058046200846 1184274
0.5807153753600104 0.22483959238542128 0.3366229297967791 1184274
-0.4103640604726703 0.18402172715477508 -0.06771702807276106 4079166
0.6655802862246919 -0.08032800833369219 0.24457176999967994 16645629
-0.575295386844368 -0.5710839442002303 -0.3348021249197459 4408131
0.4978776153366797 0.41094818305956293 0.2769185145201614 10790052
0.5109665423220932 0.5626948610889607 0.2953532266051104 14737632
0.5109665423220932 0.5626948610889607 0.2953532266051104 14737632
0.7224053464500781 0.09817897049466351 0.39934028318091275 6710886
-0.5645040990463509 0.027180492522748678 -0.3603293026408888 6710886
0.5048086514032961 0.40861759380589585 0.2851608932311132 10898471
0.42913676137478995 0.4658020166001269 0.21590431754421824 10989748
-0.5064139608579612 -0.2399878486932461 -0.2971962886093857 2039583
0.6799523422024099 0.44318670056243387 0.39028032483536407 131586
0.4723706384280123 0.570719220659855 0.27401280641701126 460551
0.7227714268376872 0.16214446180423414 0.40486627121330415 263172
-0.6343231101430421 -0.04253928384651329 -0.38244926680328883 2960685
0.49766249849181865 0.48289714621678564 0.2862702058645188 197379
0.7254215894046838 0.16233524476122035 0.415798585271615 460551
0.6864792645453476 0.11864095496063548 0.3901066307213963 65793
-0.5147293283487558 -0.5177262884180619 -0.2841134666675518 14994780
0.5049672833731678 0.41326532576478303 0.2842146389497741 12510136
-0.0564032966092874 -0.003394476885377133 -0.04960123672074969 8092539
-0.5222796255409399 -0.27502515804717126 -0.30533041830051977 1907997
-0.5578988605517281 0.09373251184075104 -0.230184756408014 1907997
0.5562223003484 0.4258968182651485 0.315472032472312 3223857
0.5085492911907478 0.40314660031242633 0.2864541511617343 263172
-0.24733145433896395 0.41521394973243564 0.09475204393632533 131586
0.6912281731519008 0.458425017070094 0.3870433120919969 131586
0.6912281731519008 0.458425017070094 0.3870433120919969 131586
0.5642070251832404 0.4633874458597017 0.2913757925268083 0
-0.5153524249730753 -0.45564828371302246 -0.3000394507146682 14540253
0.5078092963079466 0.4091097697049852 0.2853459596897962 11773883
0.48018145343566393 0.39689081582116603 0.2650679810279582 11773883
0.243921636978846 0.25715331848794826 0.11447472369308317 657930
0.029836290242908473 0.040992996608389135 0.003059306178091652 12237498
0.3084945387798408 0.21743412467388587 0.14971693287183319 12237498
-0.3185139579628485 -0.24500087472302223 -0.17213662353171885 4418113
-0.5726388497882862 0.3770056930011132 -0.372211330774056 10855845
-0.5710168135073969 -0.19437154366186854 -0.3397553859491588 7039851
0.5115028916491197 0.40094919890005826 0.2875421849652592 10329501
0.5079884608225488 0.4109273507435465 0.28487350839820064 5788967
0.6046562018760508 0.5294544288026402 0.347673309341997 3947580
-0.21608846314903205 -0.2239599098373493 -0.12445022633436476 2829099
0.3245745478637402 0.3771657562265999 0.18351534272983652 2829099
-0.31606484699443116 0.18788916241589443 -0.042048134329634834 328965
0.6067725275134623 0.5257942060345604 0.3479092505625263 1710618
0.5039468884711009 0.40562554552327856 0.2791858588016402 12171705
0.5039468884711009 0.40562554552327856 0.2791858588016402 12171705
0.6457241640758974 0.35809692869442467 0.2802072650143365 460551
0.5861139178286893 0.3134796512807092 0.27168566002460326 460551
-0.08636457084999152 0.14052753317484618 -0.0011975638493405272 7238044
0.6057289636316227 -0.06573763974946234 0.31106369366041614 723723
0.6057289636316227 -0.06573763974946234 0.31106369366041614 723723
0.46754442238261956 0.45605270022978717 0.25700992833382186 6776679
0.773306067198005 0.3038005474561998 0.4703126624896278 12566463
0.5449224804832934 0.4042154031116061 0.23467819430031184 16382457
-0.23023025423731489 -0.22756527238602486 -0.12780816219901017 131586
0.5487009373212829 0.1449568625098287 0.17906002755907136 131586
0.48602809980881884 0.377877037171666 0.26723836078297764 7303023
0.27765632833117937 0.30660811856927506 0.1233711271683769 197379
0.7389634201920505 -0.03745694590926363 0.45896812911399654 7039851
-0.6482721728599403 0.1498666003688196 -0.40398473223066034 7039851
0.2525791714047598 0.3304017877799175 0.1439639598019785 6527445
-0.4707053793972995 -0.03452959629730279 -0.16987159834742865 197379
0.5151017068209158 0.5548624599376571 0.2929760270226283 13750737
0.5151017068209158 0.5548624599376571 0.2929760270226283 13750737
0.7680920959012831 0.20021020900575626 0.437024682777567 3815994
0.46551280387602784 0.5630566995044206 0.2623047371201883 11250603
0.7069406798617798 0.17321536754047634 0.3903978232460834 1579032
0.575370461867184 0.3576932172615486 0.28288807162477975 11382189
-0.34637375565689243 -0.12591330920779137 -0.21187971878786996 11382189
0.7160438012628684 0.08060669141782795 0.39466803437723946 16185078
0.50487322229748 0.6112732581080991 0.2884876185668429 1252898
-0.3354922994502277 0.3080663155743015 0.04098662473243064 1252898
-0.5296799240641901 -0.5766308187057402 -0.30001901084895444 1252898
0.4839037315188068 0.5333317141520997 0.27287573899563555 4210752
-0.5695414849441821 -0.5380533139435362 -0.31352630059742487 2569870
0.46235273787695547 0.473795474085135 0.23531145428780248 394758
0.28861374892379654 0.31471092254759775 0.12893656074064455 394758
0.6993931508119323 0.08910286142025492 0.3910758404223745 4144959
0.46776623456606437 0.5564624337076357 0.2659306687471576 2171169
-0.11540725583255518 0.07194951970975264 -0.06999837577778104 14540253
-0.6425953095468195 -0.43253921867652445 -0.3404386661711009 1052688
0.5197344080666854 0.39831539287651435 0.2887697812140515 8467861
0.48911977090266867 0.3902802832043756 0.2641443400928077 8467861
-0.18103204961523173 0.3961368222246948 0.09129715192194471 7156792
0.6788947586552332 -0.13651783801355533 0.3927254369294767 9868950
0.5622404595475742 0.4963961436108536 0.2860912825611263 592137
-0.7372350337800884 0.22499631500984485 -0.45731683483147556 8882055
0.38342809555489726 0.32754471010833053 0.18935849476297423 8727956
-0.024712850659885863 0.030185857847401413 -0.05090287501359066 8727956
0.5775395120470213 0.3229645467618419 0.256613466735357 1644825
-0.5763004945538388 0.0574363495355561 -0.2890261025964807 1644825
0.530933017095239 0.3635990614632463 0.2963496831051864 13421772
0.5227728607073084 0.5969409841553983 0.29655126144344546 9013641
0.540871141946258 0.39910483678256425 0.3017857768499663 9671571
0.3594522015777075 0.3240932219960772 0.1651452170468407 526344
0.2427034506089916 0.25410462597053063 0.11751016777494072 460551
0.591535143769835 0.29699400655959646 0.2651040480462407 986895
-0.5937410085758472 -0.2106052644798453 -0.34186932593693187 986895
-0.23198727914490372 -0.16982160045191244 -0.12357278481227957 11316396
0.3011794227161581 0.32645678312219817 0.14286198760889868 394758
-0.42833838636299354 -0.42227845199276415 -0.2308202950317605 723723
0.1654704231334274 0.28011149659760637 0.08221326642772801 723723
0.65507321372602 0.2163683789858789 0.3659280062064878 263172
0.5721393130818817 0.2247653210415839 0.29283892850700255 263172
-0.09197950958572572 -0.0952214053243203 -0.05196243913096377 8487297
-0.43610086639975587 -0.404535299392917 -0.22966300679032628 13294027
-0.21597555680272934 -0.1672981995543669 -0.10913805264764193 13294027
-0.5815649261372193 -0.48870384979378967 -0.32956189027314553 4013373
0.5047453172821883 0.46692200183208743 0.2766847217042169 4013373
0.4598001972988935 0.5300877410994261 0.256565750165904 6447714
-0.4928194199203197 -0.3548578122436612 -0.28235569864213994 657930
0.38462475861439954 0.2788108194254559 0.1615845622809293 14408667
-0.5476970010846959 -0.576217961664746 -0.3056315270282481 9868950
0.5231948873177502 -0.1704244994086216 0.3169441697459232 6184542
0.6210835304797504 0.3948721480501464 0.33821232944453067 9803157
0.6324484734641214 0.40066287357721897 0.3451953735604447 9803157
-0.40864379808114637 0.33450847047421056 0.04604866234166164 9079434
0.6854200992289701 0.16154903616237187 0.3801000527146448 2697513
-0.6417634493686778 -0.3695283073834265 -0.33288092094571425 65793
0.4241950097422198 0.4444342033648776 0.23049899200558605 65793
0.20806619233711834 0.28179542448212147 0.08538692873135512 4079166
0.6796467947169602 0.10727832876570903 0.3793744570531136 65793
-0.4360148472686314 -0.5104365848675727 -0.24398138656738766 11193264
-0.6215394231055068 -0.5122431864486445 -0.3493940311374728 3092271
0.5721221195101814 0.5082839230901666 0.3125701081389929 3092271
0.49729622395250694 0.5533031581192461 0.278281953777982 11974326
-0.46933072129348735 -0.5110542681406297 -0.250424291505984 15461355
0.7292629325657262 0.15840725851138893 0.4047681283112214 592137
-0.309967845830958 -0.22898102893329708 -0.15876379870054183 6513507
-0.3328028498071343 -0.2429441537960378 -0.18739627769459113 394758
0.5015926488005354 0.3460551769116859 0.19634874569249017 12632256
0.06413156345463669 0.0488482233423415 0.03054896227924924 12632256
0.3599639696119931 0.2499956488445198 0.149020043794828 12632256
0.6347314741988301 0.06692576827519725 0.21024173263436008 15921906
-0.4437530528922607 -0.45095947594316416 -0.24763321747158618 2302755
0.6928200563214855 0.4453101179845617 0.36953680286499385 394758
-0.016623686679198238 0.21885428480427624 0.02876282840808131 4145981
-0.5890278076860646 -0.06096851612799392 -0.35264710132591576 789516
0.7167139883915585 0.09747301070424313 0.38757053800266206 4079166
-0.5574906062163032 0.039756700828767144 -0.3447539922270707 7237230
-0.4296781504851286 0.139395968719637 -0.270177876487735 7237230
0.42821855286020016 0.5256332837316575 0.23897047493814427 3223857
0.4274848312173144 0.5250940339850892 0.23853895058899796 3223857
0.5934075971997602 0.32611757518243756 0.2669790036611402 8158332
